# 3D point list with one line of data per point:
#   POINT3D_ID, X, Y, Z, R, G, B, ERROR, TRACK[] as (IMAGE_ID, POINT2D_IDX)
# Number of points: 399, mean track length: 4.0946871082827112
5663 -1.6357817736197562 3.1186800411243993 2.2330277615364378 0 0 0 0.69051620875441111 22 4024 23 2664 34 6264
3100 -2.5368489530326053 0.92524621138132779 6.1490452505446909 0 0 0 1.7886276143856923 4 3644 17 3184 19 703
2447 -0.1306037617719156 3.5629221692262081 1.8651898520132397 0 0 0 1.1195209276914095 2 840 14 4290 1 4579 13 3208
2657 -0.23423644575243235 3.4253196765161693 1.9019041113351838 0 0 0 0.65551261927771609 3 478 4 363 17 293
2448 -0.37914818689347596 3.682572916993033 1.7272168492832756 0 0 0 0.73957506215842617 2 2197 14 4307 17 1031 18 1358 4 1820 13 958
3174 5.6053672913211603 13.008191685376625 6.4102807503064509 0 0 0 0.48687385474124339 4 5056 17 3667 20 7553
2449 -0.3058546725596254 3.7180479759830165 1.7521562748396604 0 0 0 0.26512772915738164 2 2221 14 4363 1 4652 13 1010
3683 4.5289253265275047 14.609516013745699 3.6780342737497036 0 0 0 0.4491897069989349 4 6297 17 5960 20 8085 21 5192
2450 -0.36907868444249547 3.7676221679577839 1.7242684802786596 0 0 0 0.69066494206805218 2 964 14 4382 1 4668 13 3213 12 999
2451 -1.2172864034351096 4.2130795603418498 0.99495714555964043 0 0 0 0.46016811180762501 15 2860 14 4393 1 4708
2661 -1.5393692676317281 2.7223709816648416 2.5221408157150575 0 0 0 0.64482106253065918 3 278 4 417 17 995 18 738 21 1272
2452 -1.1821933232145743 4.3645290036776387 1.1149340792490217 0 0 0 0.33726498414864992 2 1362 14 4469 1 3576
2453 -1.1333224651683074 4.5248058647805189 1.2424074509537892 0 0 0 0.27850625923102296 2 2542 14 4533 1 4805
5146 3.3847858883407547 13.297661464559289 5.5069898510584867 0 0 0 0.20695543740127445 20 9931 19 2297 18 3762
3172 5.4080818745062214 12.727489951673368 6.8212355984837831 0 0 0 1.1904791887985104 3 6760 17 3661 20 7507 18 2766 23 2968
2455 -1.3221452359732786 2.6075032323115392 2.6168304906374931 0 0 0 1.2509157945700755 2 2925 14 4758 1 6039 23 2179 13 4205 34 6345
2665 -1.6333203276945978 3.0914636480605489 2.262969143608109 0 0 0 0.34077520816017431 3 456 4 665 17 1150 5 2986 16 441
2456 -0.8525712448688495 2.9813177425840918 1.6464903519656555 0 0 0 0.56441117745071112 2 464 14 4767 1 5232
3182 5.4546966508474179 13.176045733211282 6.0780201332752739 0 0 0 0.26029988534691784 4 5077 17 3699 20 3790
2457 0.18690764055174477 2.8007414801283468 2.2831756572409314 0 0 0 1.0837153491643672 2 2996 14 4846 1 6169 20 226 21 2472 22 2667 33 3995
3691 5.1308410434337421 15.395450697669498 2.5140121896060088 0 0 0 0.69410271986554473 4 6354 17 5985 20 8294 21 5258
2458 -0.91586783762428059 3.365739899993164 1.9759384835779075 0 0 0 0.37764321479366753 16 3212 14 4893 13 2985
2669 -0.7004542446815134 4.1678282345360955 1.0648253190114727 0 0 0 0.48544476152481236 3 1094 4 933 17 1287
2462 -1.2698970968320382 3.9341565181421148 0.81138804309927315 0 0 0 0.54039070773712483 2 3324 16 3450 14 4938
3180 5.1204405250046392 12.870676483543862 6.524404261404257 0 0 0 1.4378235372081436 3 5820 17 3690 20 7557
2463 0.035403952405699934 3.2693378409398584 2.0171736869798984 0 0 0 0.39720299985180696 2 2034 14 4947 1 5401
2609 -5.1563622726572715 2.1544488927050782 3.7136455027194288 0 0 0 1.8064977834053457 1 5993 23 2549
2464 -0.32873658513511528 3.583558896732439 1.7882754164018859 0 0 0 1.4393755609352659 15 4631 14 5023 17 3245 4 3748 22 2782 6 4447 5 4748 7 2799
3126 8.0893025155707523 12.285207518970592 7.9375048665543746 0 0 0 0.44261637735970982 4 4801 17 3398 20 7284
2768 14.57869154746365 3.4532940374320775 15.062952442864509 0 0 0 0.9035240950379253 3 5997 4 4440 17 4389 6 7367 5 6561
2465 -0.3280796234382769 3.583105134732945 1.7880428912430266 0 0 0 1.1293199352685044 15 4632 14 5024 4 3749 17 3246 22 2783 6 4448
3794 5.781502395409305 13.426579658519827 5.7002034091843887 0 0 0 0.34116063245363759 17 3704 20 3846 21 3397
2467 -1.1333554681743094 4.1320314248607657 1.0084794006933426 0 0 0 0.83779599924536041 2 2410 14 5085 13 1956 1 5570
5168 0.23897074836952051 14.556583895848721 3.1851455406891951 0 0 0 0.79706138255666137 20 10136 19 2538 18 4235
3287 3.9965453400771169 14.690944960630187 3.4250997505573615 0 0 0 0.61389270158038456 4 4327 17 4117 20 1367
2613 0.021502769870969232 3.3363326579538208 1.9958415236805833 0 0 0 1.4895771971220089 14 4975 15 4584 1 6257
2468 -0.35954785189867833 3.7442580268890291 1.7238938936446395 0 0 0 0.32181352345676317 2 2241 14 5088 1 5548 13 3203 12 1635
2772 -0.22193742791216473 3.4533540461577732 1.8804095009006658 0 0 0 0.60211057381846023 3 6130 4 4572 17 4523 18 3597
2469 -0.34169135482595914 3.766999397366031 1.7422319782022708 0 0 0 0.43158975194443733 2 2250 14 5100 1 5563
3134 9.7557749186185774 14.146775984272763 5.236640756698991 0 0 0 0.41854206585614717 4 4874 17 3468 20 7522 21 3288 22 3722
2776 11.051751367281819 11.736023297295098 9.2806455056038324 0 0 0 0.43327141531680463 3 6358 4 4647 17 3222 20 9753
2473 -4.3073801321575163 -3.2353057272685652 11.732042050532909 0 0 0 0.73849731238507099 15 7627 14 5297 13 5404
3643 4.2829887288937742 12.546276400850495 6.9559788032515115 0 0 0 0.99808770593229346 3 7888 17 5828
2474 -4.1790783713067405 -2.7573640239485426 11.897119811918916 0 0 0 1.1719943530620729 16 7424 14 5337 13 5436
3295 2.4471081580214902 13.673358724393937 4.8168256979819324 0 0 0 0.48902806244153785 4 5469 17 4151 20 4385 19 949 18 2453
2621 -0.2757106507234236 3.701840382803959 1.7648564813931988 0 0 0 1.1212976689552603 14 5697 1 6342 13 3215
2476 -1.211615181017033 3.9572128891228586 0.84776176903505374 0 0 0 0.8514639188927885 2 3330 14 5617 1 5456
3289 5.2002334618571426 15.607553929449242 2.1835151738469318 0 0 0 0.31758941165237614 4 5443 17 4129 20 4934 21 3818 19 992 22 3294
2478 -0.090442364105753376 3.4012513607154227 1.9151254869198751 0 0 0 0.42900987084677755 2 4043 14 5638 24 2367
5695 -4.7020357023624442 2.0029575602162328 3.9955846343798598 0 0 0 1.6003464286684328 21 6851 33 7928 32 8902 12 4456 25 2406
3132 9.5299779864099126 13.938296700224175 5.4501863622006193 0 0 0 1.047516179896705 4 4072 17 3463 18 2180
2479 -0.14277219662415253 3.5582456060941525 1.8560107669329415 0 0 0 0.74440484874822155 2 3184 14 5673 1 7296 13 4457 12 2287
2561 0.27583999307844498 2.610480935330147 2.4116311197766809 0 0 0 0.32355455527136268 14 2854 1 4203 24 1626 13 1789
2480 -0.37442024972005616 3.6565361836702452 1.7376347837460571 0 0 0 1.4863792614705469 2 5318 14 5677 4 4599 17 3271 21 2652 18 2699
3078 6.7591458338665671 14.119887413980928 4.8015624652525508 0 0 0 0.72483598723161125 4 5079 17 2747 20 3989 21 3424 22 3794
2481 -1.1108994764423057 4.0984003536093132 1.0237029584880628 0 0 0 0.83279666445731115 15 4810 14 5692 1 6348
3587 4.2850624296450706 15.084136506864461 2.8761718378512291 0 0 0 0.53360229835154138 4 6407 17 5376 20 4813 21 3808 22 2732
2482 -0.29337752390031324 3.6959095252464604 1.7571961296359477 0 0 0 0.95136798032505254 15 4653 14 5693 1 5540 13 3207 12 1005
2483 -0.42975596470372146 3.7911918804509979 1.6876962527342005 0 0 0 0.23386126945104868 2 4118 14 5707 1 6344
2565 0.12269648236168118 3.0203308334411991 2.1477368787902664 0 0 0 0.68836662337783405 14 3020 1 4314 22 1190
2484 -1.1590615107696429 4.1644717243065914 1.0022915659044016 0 0 0 0.48589972169360279 2 4215 14 5708 1 6364
2485 -1.2022851957634733 4.2015405356388218 0.99665639614831147 0 0 0 0.49830994054029915 15 4841 14 5717 1 5574
5178 -1.7887103786956564 14.759570616119662 2.4055062461469938 0 0 0 1.0033012372788186 20 10244 19 2681 18 4055
3076 -1.7419470655071412 3.4422057163516748 2.0579300038729045 0 0 0 0.67059709179653526 4 3070 17 2648 6 5025 5 4344
2487 -1.0937325307276289 4.2763234676057191 1.1256085414987687 0 0 0 0.78348455281960805 2 2468 14 5738 1 5611
2569 0.046880514537321991 3.2653988943734955 2.027423287351604 0 0 0 0.53015599695557414 14 3158 1 4407 13 2033 12 1014
2488 -1.1204016954395835 4.4769852066443878 1.2227058719257924 0 0 0 1.1785929619668429 2 2532 14 5773 1 6400
3086 4.6672854396244992 14.92178105450075 3.1901705715181436 0 0 0 0.44925604961903226 4 4296 17 2875 20 1368
2489 -1.1983664826364606 4.5634222573395009 1.2106526770301611 0 0 0 1.2954267190764428 2 3460 14 5785 1 5658
3595 3.3646884312152294 14.527702316688327 3.6077345159190202 0 0 0 0.47969915367937804 4 5513 17 5404 20 4652
2490 -10.105287892919234 0.34107752675018371 6.1118292078415557 0 0 0 1.3750510420799777 2 7146 14 5892 13 5349
2573 -0.141652416431439 3.5355901749010359 1.8554028360785106 0 0 0 0.76779078902935627 14 3316 1 4537 13 981 12 389
2492 -3.2081430265319932 -2.8393402516119184 11.200689880479233 0 0 0 0.57519083109310853 15 7654 14 5944 13 5424
2494 0.095658404390711771 3.1441400408049094 2.0879924271508941 0 0 0 0.65595857580313988 2 4008 14 6145 1 7240 24 2638
3084 5.5184762539503769 15.102501197684051 3.0116682136419963 0 0 0 0.47309348663595213 4 4273 17 2840 20 1299
2495 -1.1949813952041437 4.0320089699275545 0.9039052286878082 0 0 0 0.83685461723517562 2 5399 14 6191 1 7298
3878 8.7975544471875935 12.883425875202686 7.1240591489186507 0 0 0 0.38516299621206074 4 4819 20 7336 21 4821 19 1194
2641 -3.1190398501661143 9.9717651304091692 6.7563885199128615 0 0 0 0.8494572918637262 2 5915 1 8624
2496 -0.18412304777300717 3.578448549283511 1.8254495104405812 0 0 0 1.0252060133107388 16 5297 14 6205 1 7295 13 4453 12 2278
3667 3.8361649958587143 13.662778139119069 5.0799852209404408 0 0 0 0.12574216968286631 4 6832 17 5922 18 3775
2498 -1.1905751231048081 4.3960056552397413 1.1316656417765341 0 0 0 1.016733694781756 15 7014 14 6264 1 6386
2645 0.11087844402581412 3.0039118441438535 2.1603186446554474 0 0 0 0.61204651724196679 2 7246 14 6592 1 9310
2501 -3.6648290930554381 -2.8443586686913842 11.442789075774211 0 0 0 0.83740010454901537 16 8451 14 6433 13 7216
3877 9.7717620765863025 12.89232511358799 7.321863147188461 0 0 0 0.16672828097092288 4 4758 20 7297 21 4809
3156 5.657718738652334 12.404907762516787 7.3748161937516832 0 0 0 0.54887799402202353 3 6610 17 3598 18 2185
2503 -10.20052575381019 0.60744686835290229 6.2097294186921239 0 0 0 0.79489340054703206 14 6787 13 7183
3886 8.8822947805560926 13.747782536029153 5.7491740977196946 0 0 0 0.22022273596796929 17 4703 20 7495 21 4874 19 1227 22 3719
2649 0.2629989123002221 2.3294586276388638 2.5594489695542464 0 0 0 0.16526747060568944 3 58 4 37 17 705
2504 -0.39983591946449237 3.6628192655865028 1.7346396629606922 0 0 0 1.2340024169191512 2 7592 14 6928 19 3020 21 6549 18 4360
2510 -1.0793213531621662 2.2722742614260225 2.8243621967899797 0 0 0 1.2264241944015402 14 1415 1 139 27 2150 12 142
4908 0.59021773443303338 16.011713502302495 0.7605549923802043 0 0 0 0.65357227529696549 20 10312 21 6417 19 2677 22 4185 33 6823
5727 -0.53668179117991999 3.722074658799321 1.7014849754739367 0 0 0 0.34491964090339261 18 855 6 3159 5 2568
3885 7.4451002613181609 13.284556529965208 6.2436512589289332 0 0 0 0.31549961359093193 17 3556 20 7489 21 3315
3164 6.5543569349599968 13.270383826817632 6.1113851955814029 0 0 0 0.38179194859597737 4 5021 17 3623 20 3699 21 4937 19 1264 18 2774
2511 -1.2914253499155901 2.4017954819986773 2.7105634897304118 0 0 0 1.0046216688182097 2 220 1 154 4 2716 17 1621 18 1219 5 2619 24 67
3894 6.5189396225463252 13.900705699670732 5.1340369870246505 0 0 0 0.34349068985287118 4 6093 20 7709 21 4993 22 3784
2721 -0.43016934907195459 3.5662252252536537 1.8655127830363669 0 0 0 0.277787856278844 3 2422 4 2837 17 1735 6 4481 5 3827
2512 -1.2299208361646288 2.4314060358832621 2.7065340785699159 0 0 0 0.65853481121288182 14 94 1 166 21 241
3747 -1.0581579230359406 2.163671049808825 2.8396533350668083 0 0 0 1.0545218254998963 17 6644 19 3118
2514 -1.3451151829469989 2.5772566404770036 2.6081689332733577 0 0 0 0.34709203264876437 14 115 1 203 18 695 22 1273
4912 -1.3676772064934004 15.382956693406925 1.4610295158097228 0 0 0 0.32850422252921052 20 10316 21 6433 33 6727
2515 -1.6266876720785812 3.0850854620011781 2.264173098207972 0 0 0 0.85915893737359572 3 2268 1 388 4 1920 17 1145 5 2974
2725 -0.58041116010437266 3.9060462939083069 0.86015958231572143 0 0 0 0.75642834860622443 3 3807 4 2966 17 1922
2516 0.27800956005346933 2.6429531484646054 2.3987636227565723 0 0 0 0.70955087844680553 14 283 1 612 24 811
2517 -0.018917396321359241 3.1307190141749364 2.0878644862125504 0 0 0 0.28727449536121419 3 328 1 872 4 220 17 842 6 208 5 135
4907 0.90651165200209316 16.002363692105096 0.79626377182030839 0 0 0 0.31348005136161272 20 10295 21 6412 33 7456
3893 -1.6069421275528546 3.1328088761626356 2.229144373749536 0 0 0 0.90466458412046646 1 7147 20 7688 18 3625
3236 4.9047130920999829 14.51310431227428 3.861501564476542 0 0 0 0.97457613407462118 4 5280 17 3913 20 4401
2519 -0.53893496223783399 3.7131113330409122 0.74600647705490031 0 0 0 0.76923627801951255 3 812 15 784 1 1512
3902 3.8465169777070249 13.186645383675359 5.8268607113143469 0 0 0 0.2545896884632477 17 5075 20 7751 19 1370 18 2946
2729 19.964459143489496 3.2939800591886308 15.708463239561128 0 0 0 1.090666055442066 3 5053 4 3537 6 6321
2520 -4.7665120881289793 1.8981255659930285 4.1038410159253296 0 0 0 1.5555029384161894 2 59 23 1617
3246 4.0756234924438797 14.016377766769214 4.4678146636817067 0 0 0 0.98808115934666452 4 5307 17 3949 20 4306 21 3606 19 1477 18 3056
2521 -0.98314484591712681 2.1203893398113896 2.8951717818591933 0 0 0 0.3871230240494577 14 1380 1 2440 17 793
4927 -1.5206000950865199 3.2357988231197683 2.2281524160564681 0 0 0 2.2802778938117374 21 6559 19 2782 18 4132 20 10456
2526 -1.3327011783564882 2.6055251820235563 2.6092027669156517 0 0 0 1.4570066679280402 14 134 15 165 1 2507 33 632 23 1238
3901 3.8465169777070249 13.186645383675359 5.8268607113143469 0 0 0 0.2545896884632477 17 5076 20 7750 19 1371 18 2947
3244 5.6300743660140311 15.15452677719637 2.9740099392637109 0 0 0 0.29020268001048843 4 5304 17 3942 20 4596
2527 -1.426995921172991 2.8608102422675792 2.4844439834412801 0 0 0 0.40948591148156099 2 345 1 2565 23 492 13 325
2673 0.15152290218979189 2.5811078039294322 2.4588578532488818 0 0 0 1.1118316734740969 4 1500 6 4297 5 3645 7 2601
2528 0.32746639143285305 2.2290265048052502 2.6115027309242649 0 0 0 0.79621411506525519 2 225 14 1490 1 2601 26 485
3190 5.9767688919299902 13.714939590914627 5.3131640940930653 0 0 0 0.25197113468570032 4 4204 17 3724 20 3927 21 3427
2529 -1.5732668222025981 3.0946050687025979 2.2700670681640696 0 0 0 0.46589303992716141 2 444 1 2642 22 1416
3699 2.8715766364488684 14.154471007841805 4.1265312858011587 0 0 0 0.85366419278239558 4 6900 17 6027 20 8120 21 5252
2530 -0.84280046868492553 3.0174831274693017 1.6992410957592596 0 0 0 0.28735960332013771 14 2797 1 2714 13 382
2531 0.20962132993189345 2.6034504903286217 2.3987457785847623 0 0 0 0.59671972983836807 14 1596 1 2745 21 132
5232 -0.5770101312049527 3.8082663612564653 1.6406406581226833 0 0 0 1.2651903009757641 3 5345 16 4343 19 850 20 4141 21 2736 18 2750 22 2833 23 2438
2677 -1.1325515445695526 2.2275147088620826 2.8120191199056039 0 0 0 0.5533102731301397 3 87 4 1569 15 71 17 1575 18 1671 7 3297
2532 -0.85378835869111636 3.2516702657297292 1.9631572600042246 0 0 0 0.54181230388760782 14 2960 1 2845 13 551
2533 -0.85378835869111636 3.2516702657297292 1.9631572600042246 0 0 0 0.54181230388760782 14 2961 1 2846 13 552
3188 4.4348121768656021 12.525280601113421 6.9854633503024317 0 0 0 0.45474852087630246 3 5767 17 3717 18 2237
2535 0.15135322065654086 3.0027513842679072 2.1691315040701795 0 0 0 0.77469998611353419 14 1772 1 2936 13 791 24 1728
2536 -0.96356922114518673 3.5846904098754155 1.9970771621006134 0 0 0 0.36515033856813051 2 741 14 3178 1 2968
3198 7.6341926970331659 15.396984188929357 2.9223924009184157 0 0 0 0.26196086020744808 4 5128 17 3770 21 3532 20 4398
2537 0.067329981882827572 3.1402103805885115 2.0733772934632575 0 0 0 0.87656345680607872 14 1843 1 2997 22 1211 24 924
3707 -0.34108490558719951 -0.24072693447339402 9.3423605252403927 0 0 0 2.1754744308131344 3 5896 4 7003 17 6121
2538 -0.96847458682686904 3.6479468545961482 2.0030983304979677 0 0 0 0.18123599826584477 14 2017 1 3006 13 761
2685 -1.4484581897925901 2.6401278854933672 2.5577128858011653 0 0 0 0.62874828659521187 2 277 4 1700 17 957 5 2760
2540 0.012189993717064626 3.3292259833678739 1.9859743545935966 0 0 0 0.16254072355745197 14 1971 1 3134 13 924
2542 -0.082033417317128349 3.438234479545268 1.9081739787735861 0 0 0 0.26376516061882993 14 2042 15 586 1 3216
5759 -1.0091365882796086 3.3368962299533034 2.0193133473024929 0 0 0 0.46810573985074377 4 2875 6 4618 5 3943 7 3121
3196 6.0837805070334872 14.252743360403503 4.4419520346921866 0 0 0 0.5893654071908806 4 5126 17 3766 20 4138 21 3484
2625 -2.2152460575373958 1.0348982689262938 6.2970675757594483 0 0 0 0.67692636249798721 14 5453 1 7072 13 4167
2544 -0.98570353221677443 3.9271127270140007 1.2345331156335173 0 0 0 0.84386132922057477 14 3308 1 3308 13 773
3142 9.5564395017788328 14.267226189179897 4.9954963949617488 0 0 0 0.77271259725567565 4 4098 17 3497 20 3728 19 780 22 3137
2545 -0.15085434642957524 3.5702791307312673 1.8465433610609328 0 0 0 0.57647932483204878 2 849 14 2154 1 3342
3651 4.9667262342297311 13.6339031077092 5.2533275428941764 0 0 0 0.34548254539745149 4 6161 17 5868 20 9917 19 2273 18 3739
2546 -0.65485353283175274 3.9170862884619981 1.6060118074750318 0 0 0 0.7421143464950104 14 3471 1 3458 13 973
2547 -1.0954759389390454 4.1850731789303204 1.078072708540972 0 0 0 0.32499484722910638 14 4403 1 3509 13 849
2629 -1.4928334513858017 2.9153507843638025 2.406802284405845 0 0 0 0.58159376086523917 14 5494 1 7122 23 2638 33 4979
2548 -4.5413314714393263 1.2492931074638232 5.1528346322599088 0 0 0 0.66504835692457231 2 1562 1 3842 13 30
2549 -0.77310937314447048 1.8881072909305501 3.0542083709434338 0 0 0 0.29532888887083381 14 2648 1 3967 24 1408
5242 -1.5907996724810203 2.7578939831697209 2.5494993059277284 0 0 0 1.649332211919454 3 6092 4 7066 17 6176 19 2771 20 9864 21 6545 18 4120 22 4431
3140 -1.7422401105635941 3.4053660634283185 2.0895180857790647 0 0 0 1.3986884775609794 4 4720 17 3495 18 1846 6 7614 5 6348 7 6125
2551 -0.97432930550707919 2.11289564291266 2.8976559569282245 0 0 0 0.45147839949296059 2 131 14 2661 1 3977
2633 -2.7522380417528249 -1.9541356298270527 11.374948398466056 0 0 0 0.93106800866998807 15 6555 1 8205 13 5513
2552 -0.94949156506163668 2.1247563422159037 2.9258959635502211 0 0 0 0.90495587820437418 14 2668 1 3982 12 1342
3150 6.6593343905126918 12.666051726386854 7.1726849628099494 0 0 0 1.5346979100663589 4 4957 17 3547 20 7411 19 1228 23 2978
2553 -1.045112115956816 2.1980614464792443 2.8471678392301247 0 0 0 0.63216739804120203 2 153 1 3985 12 120 13 204 24 1430
3659 4.2515582164276244 13.437914943654492 5.4429505703854772 0 0 0 0.53151659830303688 4 6820 17 5891 20 9920 19 2284
2554 -1.0923924985563929 2.2613020629820024 2.8117018464374048 0 0 0 0.80410065243246454 14 2685 1 3992 23 1197
2637 -1.4863696281278378 2.8603026832678586 2.4287434465697837 0 0 0 0.73433994094300592 14 6075 1 8297 23 3097
2556 -1.3653307770164145 2.7488056003224544 2.5657068193334411 0 0 0 0.19713209301882437 2 313 1 4049 13 308
2558 -1.6012743747233276 3.2259530545577704 2.159326050174577 0 0 0 0.61192127617874348 2 1907 1 4141 21 2101
3148 5.9490659886180746 12.024217841613705 8.011431985942064 0 0 0 1.160123084651896 3 6486 17 3531 18 2690 23 2892
2559 0.26864326645149939 2.5259682104245278 2.4416756331016751 0 0 0 0.44889442872278229 2 310 1 4170 22 1995 21 1093
2560 0.2758040883345475 2.6106186011116237 2.4115866172007805 0 0 0 0.26915235452921588 14 2853 1 4202 24 1627
3506 4.1968767570661942 13.849023539220475 4.8102621368160952 0 0 0 0.58931337008753759 4 5255 17 5157 21 3565 20 4194
2563 0.13219577383634393 3.0060200096318686 2.1592471338718 0 0 0 0.34189555658562587 2 509 1 4311 24 1720
4023 -1.5687747340559315 3.1327021624205789 2.247682006793553 0 0 0 1.0694139492418528 1 4128 21 2082 19 399 18 1366 22 2826 23 1321 32 2168
2564 0.096842166895110021 3.0322999314672829 2.135209420888164 0 0 0 0.6664238105652629 2 530 14 3023 1 4313 21 1144
4017 -1.4361622694405576 2.7196687252399507 2.5207883908259077 0 0 0 1.6271396880498612 17 976 21 1972 18 730
2566 -0.97960175323387255 3.5834534962072535 1.9900142698027419 0 0 0 0.388008194531197 14 3175 1 4337 13 706
2570 -0.29396347390639499 3.453866107327217 1.8997490052509522 0 0 0 1.8021430162685805 2 3152 1 4427 17 3231 34 2938 25 1363 33 3856 24 2321
3514 6.3399825436878654 15.485821793332317 2.5727117299898499 0 0 0 0.92100597734412104 4 5268 17 5174 20 8191 21 3655 19 1522
2571 -0.55840424037891734 3.5837830341280537 0.74482356800777061 0 0 0 0.21914719146240033 2 970 1 4470 18 392
4031 0.22867882952067095 2.809555192756688 2.2819882313700091 0 0 0 1.4539446805012439 20 3378 21 2470 19 726
2572 -0.18392972988192224 3.5488285687401917 1.8305952703226009 0 0 0 0.90411940087313314 14 4265 1 4535 24 1362
4025 -1.1144144290762374 3.6018405237330122 1.4708090991251466 0 0 0 0.32327977190154294 20 967 21 2161 19 421 22 2936
2574 -0.16193040669248782 3.5835611421547235 1.8368903327589021 0 0 0 0.44965482239358301 14 3354 1 4588 13 2136
2575 -0.33214567098552505 3.7303683004767247 1.7375261587780335 0 0 0 0.12962187034112238 14 4366 1 4651 13 1006
2576 -0.30569520534867678 3.7181942889793853 1.7518936304287107 0 0 0 0.13334246734152036 14 4364 1 4653 13 1009
6019 -17.720419844716627 7.5463314655133349 0.64803423463135135 0 0 0 1.2276304567443737 33 8169 13 8078 34 11917
3458 4.5394876422823751 13.424688145362778 5.5412507043544306 0 0 0 0.43364450086923806 4 5163 17 5034 20 3991 19 1360 18 2934
2579 -2.8006238261833238 -2.012072733678691 11.379829180533953 0 0 0 0.68211856715912145 3 4989 15 4212 1 4916
3975 6.2414007678826939 15.907917682158967 1.8560831252708105 0 0 0 1.4158267995046903 4 6854 20 10081 21 6240
2580 -3.3201132456422231 0.2514649353588928 6.8626479924635246 0 0 0 0.95807915209998062 2 2719 1 4937 13 2731
3969 8.2303409359883428 15.294275998749074 3.1592209425790063 0 0 0 1.1036914922687788 4 6801 20 9968 21 6149 19 2785 18 3754 22 4379
2582 -4.8074911214817462 1.4150175331459094 4.870035925825194 0 0 0 0.04921586615174374 2 3797 1 4967
2586 -1.3858179890608662 2.6519443423640139 2.5594210302066842 0 0 0 1.2164746276580758 2 2928 1 5119 23 1694
6037 -0.96319921567291988 2.8656460943494437 1.5824500341341161 0 0 0 0.17325835150221014 5 222 7 459 8 262
3466 4.9788412433656744 13.950609428191758 4.73940528911226 0 0 0 0.4458251215537164 4 5183 17 5070 20 4157
2587 -1.3060679299207452 2.6283957878148345 2.6290230954618217 0 0 0 0.42569210903791643 14 3883 1 5123 13 272
3983 0.27021891660092046 2.5062092470742918 2.4515897528781196 0 0 0 0.43415925076715345 1 2710 21 112 22 1109
2588 -1.3867856898713091 2.7349435383792846 2.541419712185192 0 0 0 0.73858605939516886 2 1778 1 5138 34 1819 12 1376
2590 -1.6033098387088454 3.3465972435785551 2.0654430882543298 0 0 0 0.94341238970135066 14 4037 1 5261 20 689 21 2810 18 1834 22 2866 23 1352
2591 0.26811351778006787 2.63311210862526 2.3963390480233597 0 0 0 1.4052691514135724 2 353 14 2860 1 5276 33 2705 23 1772 25 1426 13 1795 24 1998
5518 0.5122461413672027 16.45944761579976 0.0144029518724969 0 0 0 0.14457011471824402 21 5868 22 4239 33 5646
2592 -0.86355041068416916 3.2240586305767192 1.9128044882355599 0 0 0 0.45254101852771439 14 4855 1 5294 13 1710
3921 3.9555275450235081 14.002258389550773 4.4498104446265208 0 0 0 1.3150735042607749 4 6276 17 5233 20 7986 21 5161 19 1481 18 3069
3264 4.0094756394309607 14.367975649956579 3.9395005237502794 0 0 0 0.4897054327565426 4 5369 17 4037 20 4481 21 3695 22 3249
2598 0.10910306954581619 3.1554937353140686 2.0960583798772476 0 0 0 1.3333759987497049 2 2002 14 4139 1 5379 13 3118 12 1645 25 1075 24 2071
2602 -0.51899213526083199 3.6659932785013969 0.73830627866382925 0 0 0 0.46973324055290949 2 3286 1 5510 13 664
3418 5.1689529342902203 13.113346951325573 6.1543779274503727 0 0 0 0.34919449946945935 4 5088 17 4924 20 7610 19 1307 18 2841
2603 -0.36309897633242694 3.7229915984478272 1.719126660002007 0 0 0 0.84638809244925051 14 5075 1 5531 13 2124
4309 0.88348390134549148 14.827377133469092 2.666645581972829 0 0 0 0.41422286084923288 20 5371 21 4191 19 1055
3935 7.6488538562551884 15.814301119862327 2.2184110067546801 0 0 0 0.67618889386787129 4 6180 20 8163 21 5141 22 3864
2604 -1.1796012737118007 4.0995632081228583 0.95310714068070257 0 0 0 0.85076835650302163 14 5686 1 5546 13 1912
4302 1.4592547124522428 15.073270794755498 2.3742923923475323 0 0 0 0.23487187671749266 20 5413 21 4174 22 3404
3929 1.8088627661549666 13.626119221698973 4.6817851064219402 0 0 0 0.52720363426212336 17 5470 20 8075 19 1593 18 3138
3272 3.9304709798815436 14.43728966494578 3.824665901966541 0 0 0 0.48474779417022357 4 5399 17 4068 20 1192
2606 -0.99771141365276628 4.144265793762373 1.2388731577427625 0 0 0 0.30411972470330167 2 2400 14 5132 1 5581
2607 -5.9839411810015708 11.70438078417334 6.5932342837040459 0 0 0 1.1603897390755649 2 4913 1 5731 13 3594
2608 -6.1130741365294101 11.800645377788863 6.4744191913354463 0 0 0 2.0158307135450668 2 4956 1 5737 13 4964
4306 2.2455321649397981 15.552726148844386 1.7380438638537334 0 0 0 0.83717277043070137 20 5557 21 4185 19 1846
6051 -1.0121914231592426 3.3622545165385112 2.0191807913982536 0 0 0 0.56547625777168076 5 3950 6 3316 7 862
4001 -1.0376110687959157 2.0252579313393522 2.955464658163792 0 0 0 0.54208419804134389 4 103 21 1116 22 1136 6 3054
3280 2.8622930930721684 13.745916903512281 4.7386256206918178 0 0 0 0.27064397740727819 4 5415 17 4088 20 1008
2614 0.022968130642461157 3.3359290978027514 1.9933488867130005 0 0 0 0.92152301753769794 14 4976 1 6258 13 4431
2618 -0.50575434854382062 3.6283349418959134 0.77425226875021391 0 0 0 0.60758841152971954 14 5575 1 6305 13 3009
6069 -1.5310422393836416 3.5960528639478428 1.6085132478757438 0 0 0 0.094072900623633271 6 1105 7 1129 8 779
3498 3.81788556582161 13.443613763101478 5.4146182375424727 0 0 0 0.52365630210572089 4 6216 17 5130 20 7823 18 2983
2619 -0.98855613656794683 3.9564413091043491 1.2318156480150733 0 0 0 0.62829363146005435 2 3308 14 5674 1 6319
4015 -1.3504177982433394 2.6878757062546081 2.5838943026081984 0 0 0 0.83428090652632736 20 330 21 1941 22 2107
2620 -1.1504095601277793 4.0276172287728365 0.94935332414923301 0 0 0 1.5748631572448464 14 6195 1 6324 13 4360
4009 -1.1609070978868312 2.1600958001372952 2.8993907485771899 0 0 0 1.2582354522387609 17 1560 21 1867 22 2029 5 4763 6 5503 8 4603
3288 5.2002334618571426 15.607553929449242 2.1835151738469318 0 0 0 0.31758941165237614 4 5444 17 4128 20 4935 21 3819 19 993 22 3295
2623 -1.0186646039620335 4.2246565083604528 1.2065743127698827 0 0 0 1.9466585126498634 2 2440 14 5166 1 6379
4313 3.1022726687611586 16.118639309735673 1.0318893513695904 0 0 0 0.3610158850894285 20 5741 21 4195 19 1863
5550 -1.589888951145396 3.6205071851977562 1.4020107085031159 0 0 0 1.5061142932898137 21 6613 22 4869 7 7425 5 7003 8 6407 9 8054 32 7364 33 4817 31 5558 10 1780 11 1145
2624 -5.9904830702491871 11.792597553169333 6.4530529196784521 0 0 0 1.2430870307226911 2 4976 1 6567 13 3610
3570 3.1128073905527143 14.048358283308746 4.3007323221020881 0 0 0 0.78369579613767337 4 6374 17 5341 20 8066 21 5231 19 1553 18 3113
2627 -1.3744154161521964 2.7258051959438241 2.5555493066519603 0 0 0 0.55445267000574205 2 3898 1 7114 23 2619 13 5554 34 9309
4087 -1.2590966574894247 3.3446704704229799 1.114687734020726 0 0 0 0.459647619939693 20 1195 21 2985 22 3580
2628 -1.4716746453679002 2.8809359873351248 2.4384909871060705 0 0 0 0.62988515590942507 14 5493 1 7121 23 2636
4081 -1.3522971394471286 3.4999591537684647 1.4688289780412362 0 0 0 0.75202362822062818 20 1019 21 2917 19 900 18 1488 22 2976
2630 0.15725682742785008 3.0646703969040399 2.158220425928342 0 0 0 1.5028643655270204 14 6137 1 7235 13 5696 12 3769
2634 -1.1927846198906076 2.4157775290139054 2.732576397436874 0 0 0 1.21440164187564 14 6052 1 8280 27 3796 11 1943 25 2255 33 5072 24 2693 34 9323
3578 4.946675314711956 15.442507173028085 2.4090806238904743 0 0 0 1.0886331780875587 4 6377 17 5355 20 4879
2635 -1.3459011519075634 2.5883165518900069 2.6052035061713941 0 0 0 1.0599667622788036 14 6061 1 8287 23 3402 34 10932 26 901 25 2244 24 2696
4095 2.647787614019522 16.646279342221089 0.11642440772195907 0 0 0 0.29338380385132834 20 6450 21 3087 19 1086
4089 0.34589369457485097 14.844978353691943 2.5912687332722295 0 0 0 0.6751152170780591 20 2218 21 3042 33 4211
2638 -0.8990543184062052 3.3806701604807157 1.9962318369372358 0 0 0 0.45254621370712983 14 6601 1 8361 13 6704
3522 3.2978432614500663 13.374250658403666 5.4019427209358879 0 0 0 0.5814401267023156 4 6259 17 5198 20 4140 19 1429 18 3019
2643 -2.6368172171834643 -2.1265488730571254 11.203169679602453 0 0 0 0.60179884578204024 14 6476 1 9216 13 7259
3371 6.8191455759022759 13.119889961694103 6.3650679265822907 0 0 0 0.2552798323718013 4 4987 17 4788 20 3637 21 4920
2650 0.1756203277628291 2.5996682321163282 2.4101082122597122 0 0 0 0.26705827393862824 3 120 4 92 17 93
6101 0.24129951389822937 2.3166156484349854 2.6264758181205132 0 0 0 0.34712419617404811 5 2253 6 2832 7 2561
4041 -3.6737577183585945 1.5879198041989862 4.7492642737770501 0 0 0 1.9376940579213013 20 99 21 2537 19 553 33 2414
2654 -0.046354504770919069 3.1483762510434836 2.0874309269917801 0 0 0 0.48481626493764274 3 341 4 229 17 216 5 147
3884 -1.5424418459708791 2.6970365744620359 2.5495405364678172 0 0 0 0.76345634540213236 4 5795 20 7476 21 5171 19 1265 18 2649 22 3958
2655 -0.043836266075676505 3.2095162833661517 2.0249950861158816 0 0 0 1.3972830668627672 3 365 4 239 6 227 5 148
5582 -4.3435291162711582 1.6369259481700169 4.5803461486066928 0 0 0 1.5079376485832225 21 3700 33 3454 32 4761
3474 3.9870909946614574 13.375924523805558 5.5523276726590138 0 0 0 0.74911344218854814 4 6199 17 5093 20 7785 19 1385 18 2969
2659 -0.2705594639040938 3.4155490787388776 1.9412090291735087 0 0 0 0.47283631909948287 3 476 4 371 17 934 22 1292 21 325
3991 -1.3813384635763581 2.5917606664456847 2.5919288637736715 0 0 0 0.79752116056530209 16 220 21 310 18 701
2660 -1.505677516252218 2.6766828585012856 2.5438209203560747 0 0 0 0.53845592198866266 3 264 4 384 17 981 21 377 18 729 6 3437 5 2801 8 3027
3985 0.1030157089648055 3.0258555823479218 2.1389102396426107 0 0 0 0.23935608164851105 1 835 21 194 22 197
2662 -1.524593975641646 2.7366860864197404 2.5011321263744559 0 0 0 0.32020103480536111 3 285 4 419 17 997 22 1335 21 389
2666 -1.6315067506218572 3.3434223655429269 2.0595098719713976 0 0 0 0.69334946661602648 16 593 4 799 7 3536 1 519
3482 5.8255876651484151 14.775712070508094 3.6101255378705059 0 0 0 0.52020798699740489 4 6205 17 5109 20 8024 21 5123 19 1438 22 3849
2667 -0.59208813693372586 4.0652932390338465 0.90674900772860423 0 0 0 0.61822451178468185 16 884 4 828 17 1232 6 498 5 343
3999 -1.6086444520002725 3.3576739151786894 2.0539391896530512 0 0 0 0.90825812498717684 14 349 21 586 18 888 17 555 7 1434
2668 -1.6419458666193276 3.5018960460149837 1.9356198873327906 0 0 0 0.37450859757908778 3 733 4 908 17 593 6 1293 5 978
3993 -0.33958439632561144 3.59099345498116 1.7836888446125354 0 0 0 0.87271058732718654 14 3298 21 395 22 1354
2670 3.37492379651209 2.6518889838738979 4.8544666667503735 0 0 0 1.0838600293880438 2 1884 4 1396 7 3889
2671 0.26853611975611325 2.2611202688677192 2.6044493544601406 0 0 0 1.0138527103959742 3 45 4 1436 17 1445
2672 0.18421854384889405 2.4975294841936475 2.5137822447900451 0 0 0 0.80041316392413697 3 88 4 1484 17 1474 6 4289 5 3643 7 3980 8 3372 9 5829
6115 -0.97875268403636262 2.9068381301207538 1.7033458727230963 0 0 0 0.41569184317353086 6 4444 7 2878 5 3801
3554 5.1487609684915903 15.213534361546754 2.7684762056182057 0 0 0 0.72586219688241937 4 6313 17 5275 20 4732
2675 -1.025995518374728 2.0309176188619542 2.9424061393098544 0 0 0 0.69998675148756706 3 52 4 1520 17 781 21 1851 19 506 18 1131 5 3781
4071 -0.97041220380754978 3.8225440703270865 1.3779735607284751 0 0 0 1.5460122020191165 20 1055 21 2874 22 4132 33 4946 10 1093 32 6210 27 3443 28 2211 11 1536 12 2817 26 742 25 1955
2676 0.084211511807211065 2.8045065517872945 2.3316397229724344 0 0 0 1.1330728831588641 3 2009 4 1546 17 780 21 1121 22 1148
4065 -0.96786941680493765 3.7617785292129069 1.5796229113748592 0 0 0 0.74371283552670842 20 4253 21 2828 22 4090 23 2808
2678 -1.1790595390835301 2.2468071849755944 2.803948943676831 0 0 0 0.30297449799712611 3 96 4 1580 17 836 6 3152
2682 -1.3277336810202796 2.4717905753624678 2.6638482760370761 0 0 0 0.34403205231809697 3 187 4 1637 17 1630 15 126 18 1226
6133 -1.271199384188143 3.4442997508259663 1.3218064681779529 0 0 0 0.66498188729066088 5 2697 6 720 7 3013
3562 5.0520834534625498 15.290900047261367 2.6621731654982885 0 0 0 0.54644552687951142 4 6343 17 5306 21 5244
2683 -1.3892165701866328 2.4659483260081765 2.6957250552441141 0 0 0 0.28729064250240499 3 190 4 1649 18 1230 6 4634 5 3945
4079 -1.3737099000401269 3.5106702140319683 1.4977805448165322 0 0 0 0.70403135728300992 20 1003 21 2914 19 899 5 4926 6 5633 7 5287 8 4438 9 5499 32 3282 31 2428
4073 1.3804543183004097 14.333094955183325 3.5083382501130731 0 0 0 0.55482098549487568 20 1716 21 2880 19 1034 18 2524
2686 -1.4917983499954979 2.6523112155654784 2.5539559783144399 0 0 0 0.30777653413484901 3 2075 4 1707 17 971
2687 -1.4918075152622321 2.6691652848400933 2.5441617657242332 0 0 0 0.31866731958436878 3 259 4 1711 6 3424 5 2792 17 975
5614 -4.3270307946579356 1.6185436435351834 4.5968553920182016 0 0 0 0.81299687768109297 21 6547 33 6447
3862 3.0632675303144374 14.391267569354559 3.791429045145716 0 0 0 0.461024853281228 4 5536 20 4634 21 3803
2689 -1.5188315784584341 2.7402348579647593 2.4953404651737232 0 0 0 0.90158132026759596 3 288 16 286 4 1735 22 1338
3347 -1.7363559680147467 3.1824702614027958 2.3012837164940527 0 0 0 1.29112039541512 4 4670 17 4655 6 7597 5 6334 7 6143 8 4706
2690 -1.5542595505817149 2.7710677029031867 2.4798355767737164 0 0 0 0.65644747669852588 3 2140 4 1760 17 1753
2691 -0.97994642070096427 3.2350199253098797 1.9487562385458159 0 0 0 0.20192855846280847 16 434 4 1787 5 2623
5904 -1.4126964497116479 16.005705892863848 0.50773226293576157 0 0 0 0.4406527875824422 6 7289 21 4652 5 6054
3860 2.4281496949194259 14.167884739233354 4.032776805714211 0 0 0 0.83160926122569256 17 4327 20 4627 21 3837
2695 -0.4160497658577148 3.7140325436743429 1.7079403018101547 0 0 0 0.28796013060132425 3 3652 4 1839 17 1777
3870 3.0770901114492881 14.630069289397175 3.389898325850369 0 0 0 0.47234835548635928 17 5478 20 4779 21 3850 19 1002 18 3185 22 3298
2697 -0.61245989786229404 3.7267541346200375 0.77909577628101412 0 0 0 0.94509823027041817 3 3755 4 1913 17 1139
3355 7.8342713050977979 13.127765865204191 6.5841509376558109 0 0 0 0.66584558147868977 3 7413 17 4722 21 4867
2698 -0.58589117180209327 4.0335232943003847 0.90462913327903116 0 0 0 1.2669630023380416 16 855 4 2069 17 1963
2702 -1.7515959736840558 4.4948205708158033 1.28822354640306 0 0 0 1.5676740472847517 15 3016 4 2462 17 1353
5407 -1.5838927980394546 2.8029077097873842 2.4785225792287067 0 0 0 1.0766418620014302 3 6093 4 6644 17 6178 18 3598 21 6222 19 2773 22 4437
3868 6.9528747210424635 15.76622879139679 2.2070678654350648 0 0 0 0.47314747363950022 4 5233 20 4706 21 3648
2703 0.21324039217022997 2.4023090720114237 2.5412996268598347 0 0 0 0.6297865938705467 3 3198 4 2588 17 1463
3942 7.1007950643846112 15.905934324095183 1.9956173297085393 0 0 0 0.94806235231801139 4 6226 20 8260 21 5183
2705 0.20774450460465752 2.4243704285346741 2.5356826659795733 0 0 0 0.71081990698729269 3 1866 4 2594 17 1465
3427 4.2146538380295508 12.564170761120511 6.8631503959426112 0 0 0 0.47783489494046549 3 7489 17 4944 18 2813 23 3314
2706 -0.89141109916971051 1.9248902752664943 2.9918004052060327 0 0 0 1.2548380318330863 3 1821 4 2602 17 2257 18 1114
2707 -0.98901493895777581 1.9873003854328737 2.9589447515408427 0 0 0 0.5868876987789895 3 1834 4 2619 17 1514 20 130 21 2467 19 503 18 1646 22 2661 5 3762 6 4425
2709 -0.01175505422516069 3.0008496593267955 2.2598640607713727 0 0 0 0.35615633486523612 3 2098 4 2688 17 1571
5914 -0.38214817032403714 3.6321303801170619 1.7575620085473618 0 0 0 0.77327656693013846 2 2174 4 1793 5 2490 3 642 17 1012 6 433
3940 3.9345048108956897 14.881361406333884 3.1481726119960824 0 0 0 0.63612663052355678 17 6014 20 8256 21 5274 19 2421 22 3908
2711 -1.2315412864304187 2.3821674337228078 2.7243828436303552 0 0 0 0.42271060395416604 3 3295 4 2702 17 2355 18 2072
3950 6.6268833270345269 16.069786965717785 1.6390931384605061 0 0 0 0.42672207165868714 4 6288 20 8359 21 5241 19 2401
2713 -1.3524787039633845 2.4755641908664776 2.666105709404492 0 0 0 0.41830313797640362 3 3335 4 2730 17 2373 6 4614 5 4847
3435 4.7197519209448773 13.071509335605731 6.156655868061792 0 0 0 1.1696270572678087 4 6125 17 4960 20 7633 19 1319 18 2865 23 3362
2714 -1.3764005428703443 2.4672728338108145 2.6854683940928492 0 0 0 1.4249432559522217 3 2000 4 2732 17 2374 18 1710 6 5581 5 4853 8 4640
2718 -1.5707452520283374 2.789611083521796 2.4823723497395429 0 0 0 0.30980753990898247 3 2156 4 2822 17 1761 22 1353
3948 4.0139689524965467 15.167966358464595 2.6979648079615624 0 0 0 0.71674279595946633 17 6052 20 8336 21 5316 19 1640 18 3213 22 3926
3538 4.9005862037455872 14.78218300430016 3.4025193401386757 0 0 0 0.51318872051682152 4 5329 17 5239 20 8117 21 5193 19 2367 18 3104 22 3882
2723 -0.98178442176232816 3.3732475743142101 1.974737184399243 0 0 0 0.16274167806846496 2 2020 4 2882 17 3311
5936 -1.1746322381353203 3.469539575440876 1.1862070086470866 0 0 0 0.49726466198716418 1 4269 14 2891 13 1636
3387 7.5455307749429812 14.065349542796989 5.0739996701084698 0 0 0 1.0853087004469153 4 6070 17 4835 21 4959 19 1288 18 2822 22 3763
2730 19.152877254944979 3.8339654236927334 15.376283754135576 0 0 0 0.69527687383514214 3 5977 4 3541 6 6333 5 5354
2734 -0.33470363461624308 3.5709370446779629 1.8009231198793845 0 0 0 0.52119480522781869 15 3631 4 3747 17 2424 6 5477 5 4747
5439 -0.43583138923680631 3.5646337424040087 1.8813843471513065 0 0 0 0.4878874477638564 21 393 22 1347 6 3103 5 2501 7 2862 8 2423 9 3261
3900 6.7930435780193825 14.091051632672102 4.8478942386739048 0 0 0 0.24910157989600221 17 4903 20 7745 21 3420
2735 -0.34905202896918186 3.6033596075577057 1.7777478896072709 0 0 0 0.20416352649030411 15 4637 4 3757 17 3254
3846 4.5283781086274386 14.521263359497283 3.7633845935737904 0 0 0 0.91373759126590193 17 3983 20 4477 21 2625
3331 9.2186289909214061 11.409309704418558 9.5886354402702256 0 0 0 1.7445161960532436 16 7853 17 4547 18 2617
2738 -0.43558441432239603 3.6851908449838864 1.7201504433882169 0 0 0 0.68617502711576461 3 4594 4 3784 17 3287 18 2170
2739 -0.61844163264902374 3.6579728687139452 0.7521026400243882 0 0 0 1.1971693394262191 3 5348 4 3804 17 2524
2741 -0.57342034295933064 3.7230617571402673 0.75131093647878711 0 0 0 0.7683177633997067 3 5361 4 3818 17 3340
5946 -11.5495950107684 1.4828858944184293 5.3451434815592398 0 0 0 1.507882726613901 1 5888 13 2594 12 2462
3844 1.8906457714483382 13.667730335538069 4.7392657631262685 0 0 0 1.6621725570591317 17 4277 20 4466 18 3131 19 1583
2743 -1.6677406118634412 3.2851606277738004 2.1135219105150655 0 0 0 0.91205024475291363 2 519 4 3873 17 2605
3854 2.3929797983162358 13.960641821063627 4.3169530446506341 0 0 0 0.394071783242676 17 5451 20 4539 19 978 18 3145
2745 8.3453865252248924 12.245727552018009 8.0355511911024102 0 0 0 0.96370128371498132 3 6444 4 3996 17 3378 20 7274
3339 -1.6488552920323967 2.9087492321032018 2.4516042289986562 0 0 0 0.49590578356024279 3 5222 4 4612 17 4584
2746 9.6036869599562102 13.310787618906845 6.559961453950808 0 0 0 0.93005954423638337 3 6589 4 4011 17 3391 20 3470 21 3237 22 3121
2750 7.6459234737863024 12.838610736566087 7.0216222585620791 0 0 0 1.0008559474426826 3 5682 4 4083 17 3492
3852 5.8827597644559955 15.077921622219858 3.1082582286487446 0 0 0 0.30122923071889668 4 5251 20 4527 21 5165 22 3875
2751 7.4328991834799281 13.098060220620773 6.5009653813713513 0 0 0 0.99937161066771762 3 6711 4 4126 20 3578
3411 4.5440655214199195 12.312737652388076 7.3113122713849199 0 0 0 0.47501261652910631 3 7415 17 4891 18 2765 23 3295
2754 7.0295282486555264 13.164552821864314 6.3701569776744176 0 0 0 0.73090800247907017 3 5766 4 4150 20 3627 21 2445
2755 6.6773734324613283 13.034958251196896 6.5280251770805213 0 0 0 0.98647573227235874 3 5759 4 4157 17 3585 20 3619 21 3327 19 785
5153 1.6827641535112903 14.240864679168928 3.7311992248940582 0 0 0 0.40005506329305579 20 8295 19 2463 18 3885
5968 -8.4828415226758445 -1.6288502878936102 8.9695478661992833 0 0 0 1.2376077245992323 14 4587 12 2488
2757 6.2826001492221977 12.785090792137396 6.8279801069969031 0 0 0 0.42069382246865611 3 5732 4 4162 17 2700
3924 8.2333033221960914 15.564963300837771 2.7062439358973167 0 0 0 0.15855832290798874 17 5837 20 8033 21 5064
3109 9.8053544374453967 10.922301519536251 10.364889368188159 0 0 0 2.2333366691415693 3 6322 17 3225 15 7426 18 2603
2759 5.4752818307743896 12.954898057571279 6.445892317486285 0 0 0 0.96067267083343832 3 6863 4 4193 17 3674 20 417
3934 5.0500262851543809 14.876345839057935 3.2799015390062483 0 0 0 0.47628406478882312 4 6286 20 8139 21 5195
2761 19.698204363330298 3.6940122251072935 15.296778060287222 0 0 0 0.87597757479543514 3 5067 4 4414 6 7345 5 5349
2766 17.934106922753067 4.2669325985054591 15.310377948965046 0 0 0 0.57525069115966443 16 6519 4 4434 17 4385 5 6110 6 7363
4140 7.4646455099335949 13.869911633292194 5.3182876838112909 0 0 0 0.14368575631864447 20 3811 21 3363 22 3153
5471 -1.3561744434736651 3.5025807489671017 1.4854455007207048 0 0 0 0.38317740159136121 21 2212 22 2409 6 4700 5 4032 7 4346 8 3705 9 3022 32 1949
3932 3.8465126636359477 14.418154716966074 3.8635307878131981 0 0 0 0.62899122805923868 17 5310 20 8095 21 5216
3117 8.6877578129801805 11.413487640507707 9.3412860547872416 0 0 0 0.074834947802379648 3 6376 17 3289
2767 14.645304222117458 3.373208132680539 15.375278533896774 0 0 0 1.7260617361901474 3 5083 4 4439 17 3057 5 6112 6 7368
3491 4.9572794833567597 14.201225094912649 4.3727697845917213 0 0 0 0.2716261943416759 4 6211 17 5120 20 4246 21 5111 22 3840
2770 -0.2553145453092967 1.0426108784400805 6.9743153709721017 0 0 0 0.93270278241412097 3 5035 15 5349 4 4474
4144 -1.0085549952545463 2.1267819306408642 2.8799299291546157 0 0 0 0.78221490002379612 20 3268 21 3387 19 1166 22 3225
2771 -2.4906721389468935 0.88359462506849162 6.1742220255417752 0 0 0 0.67697509868709815 3 4191 4 4518 15 3200
2773 -1.6149566659078136 2.7877597277248403 2.5590758553639414 0 0 0 1.9536354314119664 3 320 4 4588 17 2462 6 8018 5 6717 7 7042 8 6017
4139 7.0919324474642869 13.664007640535981 5.6393598995869505 0 0 0 0.57027439780703082 20 3770 21 3361 22 3752
5978 -1.1859568262909974 3.5060391559355595 1.3439553057060993 0 0 0 1.9774746027703289 23 3203 13 5609 34 9355 12 2743 26 874 24 2742
4004 -1.4152872706873907 2.7527499125013564 2.5182674189434384 0 0 0 0.64518495491532935 20 354 21 1254 22 2126
3125 7.4791127993940645 11.598903304862041 8.8970207423386061 0 0 0 0.98257619989655864 3 6404 17 3376 18 2102
2775 -1.6788560832056489 3.0606112928188898 2.3115089582054122 0 0 0 0.50461374851432583 3 4509 4 4644 17 4616 18 2169
2777 10.527424131350676 11.816540226680106 9.0562058402887367 0 0 0 0.73592769564473404 3 7276 4 4664 17 4530 20 9756
4159 -0.010027245207454863 3.2847238035136992 1.9865670866498182 0 0 0 0.96622827227690655 20 7514 21 3511 19 1223 17 3200 18 2637 16 4176 22 3909
2782 8.5484572020372145 12.306343600061297 7.9785154178229263 0 0 0 1.1785182397497462 3 7297 4 4781 17 4617 20 7276 19 1171 18 2646
3133 9.7557749186185774 14.146775984272763 5.236640756698991 0 0 0 0.41854206585614717 4 4873 17 3467 20 7523 21 3289 22 3721
2783 9.786180579878442 13.241922183892015 6.6982347049949125 0 0 0 0.65536959109903248 3 6560 4 4786 20 7344 21 4816 19 1188 22 3693
3958 5.1579172051237485 15.933415980178838 1.6912162388413075 0 0 0 0.42640745330553798 4 6450 20 8471 19 1668 18 3259
2785 -1.5397767112192242 3.7771089703741416 0.78386362224250694 0 0 0 1.471695848951925 3 6230 4 4794 17 3638
3443 5.1519641684518263 13.473965459153192 5.5425018594039202 0 0 0 0.24097892178031463 4 5119 17 4975 20 7716 21 5020
2786 8.524221224403151 12.616814816927352 7.4820281591433027 0 0 0 0.73426790788659824 3 6475 4 4809 17 3399 20 7318 21 3225 19 1187 18 2125
2787 8.524221224403151 12.616814816927352 7.4820281591433027 0 0 0 0.73426790788659824 3 6476 4 4810 17 3400 20 7319 21 3226 19 1186 18 2126
6000 -8.2651238415468384 -1.8361454227779541 9.0129309348813482 0 0 0 0.6767692139627578 14 6381 13 7160
2789 8.8605104839112609 12.882685962100309 7.1025742813147215 0 0 0 0.67761045635659534 3 6521 4 4814 17 3403 20 7333 21 3232
3956 5.1481152463152577 15.85728432467104 1.7873947350959345 0 0 0 0.88042709216930781 4 6433 20 8437 21 3871 19 1654 18 3243 22 3317
2791 8.792409619032556 12.875815681568461 7.1183334357667905 0 0 0 0.62124869306071273 3 6523 4 4818 17 3410 20 7335 21 4822
3966 3.1985956077700104 13.322999633791627 5.4688551054822341 0 0 0 0.40695890370339854 17 5933 20 9938 18 3771
2793 7.7630981899609068 12.547907026583966 7.4324589603912923 0 0 0 1.1577741282463814 3 6515 4 4849 17 4673 18 2674
3451 5.0109147238791873 13.528647066295711 5.4519341555338974 0 0 0 0.34463974557409732 4 5131 17 4999 20 7743 21 3461 19 1345 18 2913
2794 7.8092160216146596 12.709157055913549 7.2052393527379044 0 0 0 0.6207319285944326 3 5648 4 4864 20 3455
2798 7.1818675744441087 12.522221904324558 7.4070785778006689 0 0 0 0.74931530694658732 3 6531 4 4896 17 4705 20 3454 19 1209
5503 -1.6130172990678413 3.6318811695835231 1.4273949656681466 0 0 0 0.21937855601772546 21 4166 22 3564 7 5983 5 5656 6 6654 8 5092
3964 6.3539803980379874 14.246637906096829 4.460538097913056 0 0 0 1.1529507788222224 17 5840 20 9933 21 6145 22 4375
2799 7.0540641880660138 12.519563937581401 7.4207800686966623 0 0 0 0.56084783453179132 3 7352 4 4906 17 4715 19 1210
3910 5.6969820195323608 14.307258749960578 4.3192992249620428 0 0 0 0.35013761673578497 4 6172 20 7896 21 5073 19 1393 18 2989 22 3829
2801 7.5589078921290112 12.859994434695141 6.9067593076081479 0 0 0 0.98893509820912573 3 7378 4 4908 17 4710 21 3272 20 3505 19 1213 18 2698
3395 6.0325875343694522 13.110831481152307 6.2732916081806884 0 0 0 0.62871390786005477 4 5041 17 4851 20 7547 19 1273 18 2780
2802 7.619423616616138 12.955110091047011 6.8039233480022148 0 0 0 0.74564819173401309 3 6630 4 4910 20 7417
2803 -1.6947158116500944 4.094969111077341 1.1004531543042526 0 0 0 0.71394174881907302 3 6293 4 4919 17 4942
2805 7.9756547834723772 13.355179890255107 6.2288426008733007 0 0 0 0.7384431855662742 3 7458 4 4935 17 4735 20 7462 21 3298 22 3720
6010 -1.1312970192399963 3.6651603944347992 1.2662969002884077 0 0 0 2.3551252988798597 23 3653 13 7659 34 11519 12 5622 25 2619 24 3204
3908 4.981075987650688 14.046057698479087 4.6257864837142071 0 0 0 0.82821194428162759 4 6196 20 7882 21 5087
2807 7.4925315014693723 13.319187589001848 6.1973895442337152 0 0 0 0.73177919030880745 3 7470 4 4961 17 4763 20 7498 21 4902 19 1241 18 2742
3918 8.5283429006399132 15.456912895408758 2.9464324964381556 0 0 0 0.50903284099225676 17 5814 20 7967 21 5040
2809 6.9922015533164812 13.022243334716586 6.578170848908564 0 0 0 0.78917315503161423 3 6720 4 4967 17 3565 20 3594 21 3310 19 1238 18 2734
